24.000000 80.000000 56.000000
23.783705 78.594081 57.405919
23.567410 77.188162 58.811838
23.351114 75.782243 60.217757
23.134819 74.376324 61.623676
22.918524 72.970405 63.029595
22.702229 71.564486 64.435514
22.485933 70.158567 65.841433
22.269638 68.752648 67.247352
22.053343 67.346729 68.653271
21.837048 65.940810 70.059190
21.620752 64.534891 71.465109
21.404457 63.128972 72.871028
21.188162 61.723053 74.276947
20.971867 60.317134 75.682866
20.755572 58.911215 77.088785
20.539276 57.505296 78.494704
20.322981 56.099377 79.900623
20.106686 54.693458 81.306542
19.890391 53.287539 82.712461
19.674095 51.881620 84.118380
19.457800 50.475701 85.524299
19.241505 49.069782 86.930218
19.025210 47.663863 88.336137
18.808915 46.257944 89.742056
18.592619 44.852025 91.147975
18.376324 43.446106 92.553894
18.160029 42.040187 93.959813
17.943734 40.634268 95.365732
17.727438 39.228349 96.771651
17.511143 37.822431 98.177569
17.294848 36.416512 99.583488
17.078553 35.010593 100.989407
16.862257 33.604674 102.395326
16.645962 32.198755 103.801245
16.429667 30.792836 105.207164
16.000000 28.000000 108.000000
17.746802 28.970445 107.916819
19.493604 29.940891 107.833638
21.240405 30.911336 107.750457
22.987207 31.881782 107.667276
24.734009 32.852227 107.584095
26.480811 33.822673 107.500914
28.227613 34.793118 107.417733
29.974414 35.763564 107.334552
31.721216 36.734009 107.251371
33.468018 37.704454 107.168190
35.214820 38.674900 107.085009
36.961622 39.645345 107.001828
38.708423 40.615791 106.918647
40.455225 41.586236 106.835465
42.202027 42.556682 106.752284
43.948829 43.527127 106.669103
45.695631 44.497573 106.585922
47.442433 45.468018 106.502741
49.189234 46.438464 106.419560
50.936036 47.408909 106.336379
52.682838 48.379354 106.253198
54.429640 49.349800 106.170017
56.176442 50.320245 106.086836
57.923243 51.290691 106.003655
59.670045 52.261136 105.920474
61.416847 53.231582 105.837293
63.163649 54.202027 105.754112
64.910451 55.172473 105.670931
66.657252 56.142918 105.587750
68.404054 57.113363 105.504569
70.150856 58.083809 105.421388
71.897658 59.054254 105.338207
73.644460 60.024700 105.255026
75.391261 60.995145 105.171845
77.138063 61.965591 105.088664
78.884865 62.936036 105.005483
80.631667 63.906482 104.922302
82.378469 64.876927 104.839121
84.125270 65.847372 104.755940
85.872072 66.817818 104.672758
87.618874 67.788263 104.589577
89.365676 68.758709 104.506396
91.112478 69.729154 104.423215
92.859279 70.699600 104.340034
94.606081 71.670045 104.256853
96.352883 72.640491 104.173672
98.099685 73.610936 104.090491
99.846487 74.581381 104.007310
101.593288 75.551827 103.924129
103.340090 76.522272 103.840948
105.086892 77.492718 103.757767
106.833694 78.463163 103.674586
108.580496 79.433609 103.591405
110.327298 80.404054 103.508224
112.074099 81.374500 103.425043
113.820901 82.344945 103.341862
115.567703 83.315391 103.258681
117.314505 84.285836 103.175500
119.061307 85.256281 103.092319
120.808108 86.226727 103.009138
122.554910 87.197172 102.925957
124.301712 88.167618 102.842776
126.048514 89.138063 102.759595
127.795316 90.108509 102.676414
129.542117 91.078954 102.593233
131.288919 92.049400 102.510051
133.035721 93.019845 102.426870
134.782523 93.990290 102.343689
136.529325 94.960736 102.260508
138.276126 95.931181 102.177327
140.022928 96.901627 102.094146
141.769730 97.872072 102.010965
143.516532 98.842518 101.927784
145.263334 99.812963 101.844603
147.010135 100.783409 101.761422
148.756937 101.753854 101.678241
150.503739 102.724299 101.595060
152.250541 103.694745 101.511879
153.997343 104.665190 101.428698
155.744144 105.635636 101.345517
157.490946 106.606081 101.262336
159.237748 107.576527 101.179155
160.984550 108.546972 101.095974
162.731352 109.517418 101.012793
164.478153 110.487863 100.929612
166.224955 111.458308 100.846431
167.971757 112.428754 100.763250
169.718559 113.399199 100.680069
171.465361 114.369645 100.596888
173.212163 115.340090 100.513707
174.958964 116.310536 100.430526
176.705766 117.280981 100.347344
178.452568 118.251427 100.264163
180.199370 119.221872 100.180982
181.946172 120.192318 100.097801
183.692973 121.162763 100.014620
185.439775 122.133208 99.931439
187.186577 123.103654 99.848258
188.933379 124.074099 99.765077
190.680181 125.044545 99.681896
192.426982 126.014990 99.598715
194.173784 126.985436 99.515534
195.920586 127.955881 99.432353
197.667388 128.926327 99.349172
199.414190 129.896772 99.265991
201.160991 130.867217 99.182810
202.907793 131.837663 99.099629
204.654595 132.808108 99.016448
206.401397 133.778554 98.933267
208.148199 134.748999 98.850086
209.895000 135.719445 98.766905
211.641802 136.689890 98.683724
213.388604 137.660336 98.600543
215.135406 138.630781 98.517362
216.882208 139.601226 98.434181
218.629009 140.571672 98.351000
220.375811 141.542117 98.267819
222.122613 142.512563 98.184637
223.869415 143.483008 98.101456
225.616217 144.453454 98.018275
227.363018 145.423899 97.935094
229.109820 146.394345 97.851913
230.856622 147.364790 97.768732
232.603424 148.335235 97.685551
234.350226 149.305681 97.602370
236.097028 150.276126 97.519189
237.843829 151.246572 97.436008
239.590631 152.217017 97.352827
241.337433 153.187463 97.269646
243.084235 154.157908 97.186465
244.831037 155.128354 97.103284
246.577838 156.098799 97.020103
248.324640 157.069245 96.936922
250.071442 158.039690 96.853741
251.818244 159.010135 96.770560
253.565046 159.980581 96.687379
255.311847 160.951026 96.604198
257.058649 161.921472 96.521017
258.805451 162.891917 96.437836
260.552253 163.862363 96.354655
262.299055 164.832808 96.271474
264.045856 165.803254 96.188293
265.792658 166.773699 96.105112
268.000000 168.000000 96.000000
268.000000 166.494847 94.682991
268.000000 164.989693 93.365982
268.000000 163.484540 92.048972
268.000000 161.979386 90.731963
268.000000 160.474233 89.414954
268.000000 158.969080 88.097945
268.000000 157.463926 86.780935
268.000000 155.958773 85.463926
268.000000 154.453619 84.146917
268.000000 152.948466 82.829908
268.000000 151.443313 81.512899
268.000000 149.938159 80.195889
268.000000 148.433006 78.878880
268.000000 146.927853 77.561871
268.000000 145.422699 76.244862
268.000000 143.917546 74.927853
268.000000 142.412392 73.610843
268.000000 140.907239 72.293834
268.000000 139.402086 70.976825
268.000000 137.896932 69.659816
268.000000 136.391779 68.342806
268.000000 134.886625 67.025797
268.000000 133.381472 65.708788
268.000000 131.876319 64.391779
268.000000 130.371165 63.074770
268.000000 128.866012 61.757760
268.000000 127.360858 60.440751
268.000000 125.855705 59.123742
268.000000 124.350552 57.806733
268.000000 122.845398 56.489724
268.000000 121.340245 55.172714
268.000000 119.835092 53.855705
268.000000 118.329938 52.538696
268.000000 116.824785 51.221687
268.000000 115.319631 49.904677
268.000000 113.814478 48.587668
268.000000 112.309325 47.270659
268.000000 110.804171 45.953650
268.000000 109.299018 44.636641
268.000000 107.793864 43.319631
268.000000 106.288711 42.002622
268.000000 104.783558 40.685613
268.000000 103.278404 39.368604
268.000000 101.773251 38.051595
268.000000 100.268097 36.734585
268.000000 98.762944 35.417576
268.000000 97.257791 34.100567
268.000000 95.752637 32.783558
268.000000 94.247484 31.466548
268.000000 92.742331 30.149539
268.000000 91.237177 28.832530
268.000000 89.732024 27.515521
268.000000 88.226870 26.198512
268.000000 86.721717 24.881502
268.000000 85.216564 23.564493
268.000000 83.711410 22.247484
268.000000 82.206257 20.930475
268.000000 80.701103 19.613465
268.000000 79.195950 18.296456
268.000000 77.690797 16.979447
268.000000 76.185643 15.662438
268.000000 74.680490 14.345429
268.000000 73.175336 13.028419
268.000000 71.670183 11.711410
268.000000 70.165030 10.394401
268.000000 68.659876 9.077392
268.000000 67.154723 7.760383
268.000000 65.649570 6.443373
268.000000 64.144416 5.126364
268.000000 62.639263 3.809355
268.000000 61.134109 2.492346
268.000000 59.628956 1.175336
268.000000 58.123803 -0.141673
268.000000 56.618649 -1.458682
268.000000 55.113496 -2.775691
268.000000 53.608342 -4.092700
268.000000 52.103189 -5.409710
268.000000 50.598036 -6.726719
268.000000 49.092882 -8.043728
268.000000 47.587729 -9.360737
268.000000 46.082575 -10.677746
268.000000 44.577422 -11.994756
268.000000 43.072269 -13.311765
268.000000 41.567115 -14.628774
268.000000 40.000000 -16.000000
266.023164 39.709289 -16.087213
264.046328 39.418578 -16.174427
262.069492 39.127866 -16.261640
260.092656 38.837155 -16.348853
258.115820 38.546444 -16.436067
256.138984 38.255733 -16.523280
254.162148 37.965022 -16.610493
252.185311 37.674311 -16.697707
250.208475 37.383599 -16.784920
248.231639 37.092888 -16.872134
246.254803 36.802177 -16.959347
244.277967 36.511466 -17.046560
242.301131 36.220755 -17.133774
240.324295 35.930043 -17.220987
238.347459 35.639332 -17.308200
236.370623 35.348621 -17.395414
234.393787 35.057910 -17.482627
232.416951 34.767199 -17.569840
230.440115 34.476487 -17.657054
228.463279 34.185776 -17.744267
226.486443 33.895065 -17.831480
224.509607 33.604354 -17.918694
222.532770 33.313643 -18.005907
220.555934 33.022932 -18.093121
218.579098 32.732220 -18.180334
216.602262 32.441509 -18.267547
214.625426 32.150798 -18.354761
212.648590 31.860087 -18.441974
210.671754 31.569376 -18.529187
208.694918 31.278664 -18.616401
206.718082 30.987953 -18.703614
204.741246 30.697242 -18.790827
202.764410 30.406531 -18.878041
200.787574 30.115820 -18.965254
198.810738 29.825108 -19.052467
196.833902 29.534397 -19.139681
194.857066 29.243686 -19.226894
192.880229 28.952975 -19.314108
190.903393 28.662264 -19.401321
188.926557 28.371553 -19.488534
186.949721 28.080841 -19.575748
184.972885 27.790130 -19.662961
182.996049 27.499419 -19.750174
181.019213 27.208708 -19.837388
179.042377 26.917997 -19.924601
177.065541 26.627285 -20.011814
175.088705 26.336574 -20.099028
173.111869 26.045863 -20.186241
171.135033 25.755152 -20.273454
169.158197 25.464441 -20.360668
167.181361 25.173729 -20.447881
165.204525 24.883018 -20.535095
163.227688 24.592307 -20.622308
161.250852 24.301596 -20.709521
159.274016 24.010885 -20.796735
157.297180 23.720174 -20.883948
155.320344 23.429462 -20.971161
153.343508 23.138751 -21.058375
151.366672 22.848040 -21.145588
149.389836 22.557329 -21.232801
147.413000 22.266618 -21.320015
145.436164 21.975906 -21.407228
143.459328 21.685195 -21.494441
141.482492 21.394484 -21.581655
139.505656 21.103773 -21.668868
137.528820 20.813062 -21.756081
135.551983 20.522351 -21.843295
133.575147 20.231639 -21.930508
131.598311 19.940928 -22.017722
129.621475 19.650217 -22.104935
127.644639 19.359506 -22.192148
125.667803 19.068795 -22.279362
123.690967 18.778083 -22.366575
121.714131 18.487372 -22.453788
119.737295 18.196661 -22.541002
117.760459 17.905950 -22.628215
115.783623 17.615239 -22.715428
113.806787 17.324527 -22.802642
111.829951 17.033816 -22.889855
109.853115 16.743105 -22.977068
107.876279 16.452394 -23.064282
105.899442 16.161683 -23.151495
103.922606 15.870972 -23.238709
101.945770 15.580260 -23.325922
99.968934 15.289549 -23.413135
97.992098 14.998838 -23.500349
96.015262 14.708127 -23.587562
94.038426 14.417416 -23.674775
92.061590 14.126704 -23.761989
90.084754 13.835993 -23.849202
88.107918 13.545282 -23.936415
86.131082 13.254571 -24.023629
84.154246 12.963860 -24.110842
82.177410 12.673148 -24.198055
80.200574 12.382437 -24.285269
78.223738 12.091726 -24.372482
76.246901 11.801015 -24.459696
74.270065 11.510304 -24.546909
72.293229 11.219593 -24.634122
70.316393 10.928881 -24.721336
68.339557 10.638170 -24.808549
66.362721 10.347459 -24.895762
64.385885 10.056748 -24.982976
62.409049 9.766037 -25.070189
60.432213 9.475325 -25.157402
58.455377 9.184614 -25.244616
56.478541 8.893903 -25.331829
54.501705 8.603192 -25.419042
52.524869 8.312481 -25.506256
50.548033 8.021770 -25.593469
48.571197 7.731058 -25.680683
46.594360 7.440347 -25.767896
44.617524 7.149636 -25.855109
42.640688 6.858925 -25.942323
40.663852 6.568214 -26.029536
38.687016 6.277502 -26.116749
36.710180 5.986791 -26.203963
34.733344 5.696080 -26.291176
32.756508 5.405369 -26.378389
30.779672 5.114658 -26.465603
28.802836 4.823946 -26.552816
26.826000 4.533235 -26.640029
24.849164 4.242524 -26.727243
22.872328 3.951813 -26.814456
20.895492 3.661102 -26.901669
18.918656 3.370391 -26.988883
16.941819 3.079679 -27.076096
14.964983 2.788968 -27.163310
12.988147 2.498257 -27.250523
11.011311 2.207546 -27.337736
9.034475 1.916835 -27.424950
7.057639 1.626123 -27.512163
5.080803 1.335412 -27.599376
3.103967 1.044701 -27.686590
1.127131 0.753990 -27.773803
-0.849705 0.463279 -27.861016
-4.000000 0.000000 -28.000000
-4.376288 1.881442 -27.435567
-4.752577 3.762883 -26.871135
-5.128865 5.644325 -26.306702
-5.505153 7.525767 -25.742270
-5.881442 9.407209 -25.177837
-6.257730 11.288650 -24.613405
-6.634018 13.170092 -24.048972
-7.010307 15.051534 -23.484540
-7.386595 16.932976 -22.920107
-7.762883 18.814417 -22.355675
-8.139172 20.695859 -21.791242
-8.515460 22.577301 -21.226810
-8.891749 24.458743 -20.662377
-9.268037 26.340184 -20.097945
-9.644325 28.221626 -19.533512
-10.020614 30.103068 -18.969080
-10.396902 31.984510 -18.404647
-10.773190 33.865951 -17.840215
-11.149479 35.747393 -17.275782
-11.525767 37.628835 -16.711350
