-24.000000 64.000000 124.000000
-25.414214 62.585786 124.000000
-26.828427 61.171573 124.000000
-28.242641 59.757359 124.000000
-29.656854 58.343146 124.000000
-31.071068 56.928932 124.000000
-32.485281 55.514719 124.000000
-33.899495 54.100505 124.000000
-35.313708 52.686292 124.000000
-36.727922 51.272078 124.000000
-38.142136 49.857864 124.000000
-39.556349 48.443651 124.000000
-40.970563 47.029437 124.000000
-42.384776 45.615224 124.000000
-43.798990 44.201010 124.000000
-45.213203 42.786797 124.000000
-46.627417 41.372583 124.000000
-48.041631 39.958369 124.000000
-49.455844 38.544156 124.000000
-50.870058 37.129942 124.000000
-52.284271 35.715729 124.000000
-53.698485 34.301515 124.000000
-55.112698 32.887302 124.000000
-56.526912 31.473088 124.000000
-57.941125 30.058875 124.000000
-59.355339 28.644661 124.000000
-60.769553 27.230447 124.000000
-62.183766 25.816234 124.000000
-63.597980 24.402020 124.000000
-65.012193 22.987807 124.000000
-66.426407 21.573593 124.000000
-67.840620 20.159380 124.000000
-69.254834 18.745166 124.000000
-70.669048 17.330952 124.000000
-72.083261 15.916739 124.000000
-73.497475 14.502525 124.000000
-74.911688 13.088312 124.000000
-76.325902 11.674098 124.000000
-77.740115 10.259885 124.000000
-80.000000 8.000000 124.000000
-80.258438 7.913854 122.018640
-80.516877 7.827708 120.037279
-80.775315 7.741562 118.055919
-81.033753 7.655416 116.074559
-81.292191 7.569270 114.093199
-81.550630 7.483123 112.111838
-81.809068 7.396977 110.130478
-82.067506 7.310831 108.149118
-82.325945 7.224685 106.167758
-82.584383 7.138539 104.186397
-82.842821 7.052393 102.205037
-83.101260 6.966247 100.223677
-83.359698 6.880101 98.242317
-83.618136 6.793955 96.260956
-83.876574 6.707809 94.279596
-84.135013 6.621662 92.298236
-84.393451 6.535516 90.316876
-84.651889 6.449370 88.335515
-84.910328 6.363224 86.354155
-85.168766 6.277078 84.372795
-85.427204 6.190932 82.391434
-85.685642 6.104786 80.410074
-85.944081 6.018640 78.428714
-86.202519 5.932494 76.447354
-86.460957 5.846348 74.465993
-86.719396 5.760201 72.484633
-86.977834 5.674055 70.503273
-87.236272 5.587909 68.521913
-87.494711 5.501763 66.540552
-87.753149 5.415617 64.559192
-88.011587 5.329471 62.577832
-88.270025 5.243325 60.596472
-88.528464 5.157179 58.615111
-88.786902 5.071033 56.633751
-89.045340 4.984887 54.652391
-89.303779 4.898740 52.671030
-89.562217 4.812594 50.689670
-89.820655 4.726448 48.708310
-90.079094 4.640302 46.726950
-90.337532 4.554156 44.745589
-90.595970 4.468010 42.764229
-90.854408 4.381864 40.782869
-91.112847 4.295718 38.801509
-91.371285 4.209572 36.820148
-91.629723 4.123426 34.838788
-92.000000 4.000000 32.000000
-91.607768 2.431071 30.823303
-91.215535 0.862142 29.646606
-90.823303 -0.706787 28.469910
-90.431071 -2.275716 27.293213
-90.038839 -3.844645 26.116516
-89.646606 -5.413574 24.939819
-89.254374 -6.982504 23.763122
-88.862142 -8.551433 22.586426
-88.469910 -10.120362 21.409729
-88.077677 -11.689291 20.233032
-87.685445 -13.258220 19.056335
-87.293213 -14.827149 17.879638
-86.900980 -16.396078 16.702941
-86.508748 -17.965007 15.526245
-86.116516 -19.533936 14.349548
-85.724284 -21.102865 13.172851
-85.332051 -22.671794 11.996154
-84.939819 -24.240723 10.819457
-84.547587 -25.809653 9.642761
-84.155355 -27.378582 8.466064
-83.763122 -28.947511 7.289367
-83.370890 -30.516440 6.112670
-82.978658 -32.085369 4.935973
-82.586426 -33.654298 3.759277
-82.194193 -35.223227 2.582580
-81.801961 -36.792156 1.405883
-81.409729 -38.361085 0.229186
-81.017496 -39.930014 -0.947511
-80.625264 -41.498943 -2.124208
-80.000000 -44.000000 -4.000000
-78.063200 -43.584971 -4.276686
-76.126399 -43.169943 -4.553372
-74.189599 -42.754914 -4.830057
-72.252798 -42.339885 -5.106743
-70.315998 -41.924857 -5.383429
-68.379197 -41.509828 -5.660115
-66.442397 -41.094799 -5.936800
-64.505596 -40.679771 -6.213486
-62.568796 -40.264742 -6.490172
-60.631995 -39.849713 -6.766858
-58.695195 -39.434685 -7.043544
-56.758394 -39.019656 -7.320229
-54.821594 -38.604627 -7.596915
-52.884793 -38.189599 -7.873601
-50.947993 -37.774570 -8.150287
-49.011192 -37.359541 -8.426973
-47.074392 -36.944512 -8.703658
-45.137591 -36.529484 -8.980344
-43.200791 -36.114455 -9.257030
-41.263990 -35.699426 -9.533716
-39.327190 -35.284398 -9.810401
-37.390389 -34.869369 -10.087087
-35.453589 -34.454340 -10.363773
-33.516788 -34.039312 -10.640459
-31.579988 -33.624283 -10.917145
-29.643187 -33.209254 -11.193830
-27.706387 -32.794226 -11.470516
